# .PCD v0.7 - Point Cloud Data file format
VERSION 0.7
FIELDS x y z
SIZE 4 4 4
TYPE F F F
COUNT 1 1 1
WIDTH 1716
HEIGHT 1
VIEWPOINT 0 0 0 1 0 0 0
POINTS 1716
DATA ascii
2.0510001 -4.9489999 0.301
2.0510001 -4.9489999 0.35100001
2.0510001 -4.9489999 0.40099999
2.0510001 -4.9489999 0.45100001
2.0510001 -4.9489999 0.50099999
2.0510001 -4.9489999 0.551
2.0510001 -4.9489999 0.60100001
2.0510001 -4.9489999 0.65100002
2.0510001 -4.9489999 0.70099998
2.0510001 -4.9489999 0.75099999
2.0510001 -4.9489999 0.801
2.0510001 -4.9489999 0.85100001
2.0510001 -4.9489999 0.90100002
2.0510001 -4.9489999 0.95099998
2.0510001 -4.9489999 1.001
2.0510001 -4.9489999 1.051
2.0510001 -4.9489999 1.101
2.0510001 -4.9489999 1.151
2.0510001 -4.9489999 1.201
2.0510001 -4.9489999 1.251
2.0510001 -4.9489999 1.301
2.0510001 -4.9489999 1.351
2.0510001 -4.9489999 1.401
2.0510001 -4.9489999 1.451
2.0510001 -4.9489999 1.501
2.0510001 -4.9489999 1.551
2.0510001 -4.9489999 1.601
2.0510001 -4.9489999 1.651
2.0510001 -4.9489999 1.701
2.0510001 -4.9489999 1.751
2.0510001 -4.9489999 1.801
2.0510001 -4.9489999 1.851
2.0510001 -4.9489999 1.901
2.0510001 -4.9489999 1.951
2.0510001 -4.9489999 2.0009999
2.0510001 -4.9489999 2.0510001
2.0510001 -4.9489999 2.1010001
2.0510001 -4.9489999 2.151
2.0510001 -4.9489999 2.201
2.0510001 -4.9489999 2.2509999
2.0510001 -4.9489999 2.3010001
2.0510001 -4.9489999 2.3510001
2.0510001 -4.849 0.001
2.0510001 -4.849 0.050999999
2.0510001 -4.849 0.101
2.0510001 -4.849 0.15099999
2.0510001 -4.849 0.20100001
2.0510001 -4.849 0.25099999
2.0510001 -4.849 0.301
2.0510001 -4.849 0.35100001
2.0510001 -4.849 0.40099999
2.0510001 -4.849 0.45100001
2.0510001 -4.849 0.50099999
2.0510001 -4.849 0.551
2.0510001 -4.849 0.60100001
2.0510001 -4.849 0.65100002
2.0510001 -4.849 0.70099998
2.0510001 -4.849 0.75099999
2.0510001 -4.849 0.801
2.0510001 -4.849 0.85100001
2.0510001 -4.849 0.90100002
2.0510001 -4.849 0.95099998
2.0510001 -4.849 1.001
2.0510001 -4.849 1.051
2.0510001 -4.849 1.101
2.0510001 -4.849 1.151
2.0510001 -4.849 1.201
2.0510001 -4.849 1.251
2.0510001 -4.849 1.301
2.0510001 -4.849 1.351
2.0510001 -4.849 1.401
2.0510001 -4.849 1.451
2.0510001 -4.849 1.501
2.0510001 -4.849 1.551
2.0510001 -4.849 1.601
2.0510001 -4.849 1.651
2.0510001 -4.849 1.701
2.0510001 -4.849 1.751
2.0510001 -4.849 1.801
2.0510001 -4.849 1.851
2.0510001 -4.849 1.901
2.0510001 -4.849 1.951
2.0510001 -4.849 2.0009999
2.0510001 -4.849 2.0510001
2.0510001 -4.849 2.1010001
2.0510001 -4.849 2.151
2.0510001 -4.849 2.201
2.0510001 -4.849 2.2509999
2.0510001 -4.849 2.3010001
2.0510001 -4.849 2.3510001
2.151 -5.0489998 0.001
2.151 -5.0489998 0.050999999
2.151 -5.0489998 0.101
2.151 -5.0489998 0.15099999
2.151 -5.0489998 0.20100001
2.151 -5.0489998 0.25099999
2.151 -5.0489998 0.301
2.151 -5.0489998 0.35100001
2.151 -5.0489998 0.40099999
2.151 -5.0489998 0.45100001
2.151 -5.0489998 0.50099999
2.151 -5.0489998 0.551
2.151 -5.0489998 0.60100001
2.151 -5.0489998 0.65100002
2.151 -5.0489998 0.70099998
2.151 -5.0489998 0.75099999
2.151 -5.0489998 0.801
2.151 -5.0489998 0.85100001
2.151 -5.0489998 0.90100002
2.151 -5.0489998 0.95099998
2.151 -5.0489998 1.001
2.151 -5.0489998 1.051
2.151 -5.0489998 1.101
2.151 -5.0489998 1.151
2.151 -5.0489998 1.201
2.151 -5.0489998 1.251
2.151 -5.0489998 1.301
2.151 -5.0489998 1.351
2.151 -5.0489998 1.401
2.151 -5.0489998 1.451
2.151 -5.0489998 1.501
2.151 -5.0489998 1.551
2.151 -5.0489998 1.601
2.151 -5.0489998 1.651
2.151 -5.0489998 1.701
2.151 -5.0489998 1.751
2.151 -5.0489998 1.801
2.151 -5.0489998 1.851
2.151 -5.0489998 1.901
2.151 -5.0489998 1.951
2.151 -5.0489998 2.0009999
2.151 -5.0489998 2.0510001
2.151 -5.0489998 2.1010001
2.151 -5.0489998 2.151
2.151 -5.0489998 2.201
2.151 -5.0489998 2.2509999
2.151 -5.0489998 2.3010001
2.151 -5.0489998 2.3510001
2.151 -5.0489998 2.401
2.151 -5.0489998 2.451
2.151 -5.0489998 2.5009999
2.151 -5.0489998 2.5510001
2.151 -5.0489998 2.6010001
2.151 -5.0489998 2.651
2.151 -5.0489998 2.701
2.151 -5.0489998 2.7509999
2.151 -4.9489999 0.001
2.151 -4.9489999 0.050999999
2.151 -4.9489999 0.101
2.151 -4.9489999 0.15099999
2.151 -4.9489999 0.20100001
2.151 -4.9489999 0.25099999
2.151 -4.9489999 0.301
2.151 -4.9489999 0.35100001
2.151 -4.9489999 0.40099999
2.151 -4.9489999 0.45100001
2.151 -4.9489999 0.50099999
2.151 -4.9489999 0.551
2.151 -4.9489999 0.60100001
2.151 -4.9489999 0.65100002
2.151 -4.9489999 0.70099998
2.151 -4.9489999 0.75099999
2.151 -4.9489999 0.801
2.151 -4.9489999 0.85100001
2.151 -4.9489999 0.90100002
2.151 -4.9489999 0.95099998
2.151 -4.9489999 1.001
2.151 -4.9489999 1.051
2.151 -4.9489999 1.101
2.151 -4.9489999 1.151
2.151 -4.849 0.001
2.151 -4.849 0.050999999
2.151 -4.849 0.101
2.151 -4.849 0.15099999
2.151 -4.849 0.20100001
2.151 -4.849 0.25099999
2.151 -4.849 0.301
2.151 -4.849 0.35100001
2.151 -4.849 0.40099999
2.151 -4.849 0.45100001
2.151 -4.849 0.50099999
2.151 -4.849 0.551
2.151 -4.849 0.60100001
2.151 -4.849 0.65100002
2.151 -4.849 0.70099998
2.151 -4.849 0.75099999
2.151 -4.849 0.801
2.151 -4.849 0.85100001
2.151 -4.849 0.90100002
2.151 -4.849 0.95099998
2.151 -4.849 1.001
2.151 -4.849 1.051
2.151 -4.849 1.101
2.151 -4.849 1.151
2.151 -4.849 1.201
2.151 -4.849 1.251
2.151 -4.849 1.301
2.151 -4.849 1.351
2.151 -4.849 1.401
2.151 -4.849 1.451
2.151 -4.849 1.501
2.151 -4.849 1.551
2.151 -4.849 1.601
2.151 -4.849 1.651
2.151 -4.849 1.701
2.151 -4.849 1.751
2.151 -4.849 1.801
2.151 -4.849 1.851
2.151 -4.849 1.901
2.151 -4.849 1.951
2.151 -4.849 2.0009999
2.151 -4.849 2.0510001
2.151 -4.849 2.1010001
2.151 -4.849 2.151
2.151 -4.849 2.201
2.151 -4.849 2.2509999
2.2509999 -5.0489998 0.001
2.2509999 -5.0489998 0.050999999
2.2509999 -5.0489998 0.101
2.2509999 -5.0489998 0.15099999
2.2509999 -5.0489998 0.20100001
2.2509999 -5.0489998 0.25099999
2.2509999 -5.0489998 0.301
2.2509999 -5.0489998 0.35100001
2.2509999 -5.0489998 0.40099999
2.2509999 -5.0489998 0.45100001
2.2509999 -5.0489998 0.50099999
2.2509999 -5.0489998 0.551
2.2509999 -5.0489998 0.60100001
2.2509999 -5.0489998 0.65100002
2.2509999 -5.0489998 0.70099998
2.2509999 -5.0489998 0.75099999
2.2509999 -5.0489998 0.801
2.2509999 -5.0489998 0.85100001
2.2509999 -5.0489998 0.90100002
2.2509999 -5.0489998 0.95099998
2.2509999 -5.0489998 1.001
2.2509999 -5.0489998 1.051
2.2509999 -5.0489998 1.101
2.2509999 -5.0489998 1.151
2.2509999 -5.0489998 1.201
2.2509999 -5.0489998 1.251
2.2509999 -5.0489998 1.301
2.2509999 -5.0489998 1.351
2.2509999 -4.9489999 0.001
2.2509999 -4.9489999 0.050999999
2.2509999 -4.9489999 0.101
2.2509999 -4.9489999 0.15099999
2.2509999 -4.9489999 0.20100001
2.2509999 -4.9489999 0.25099999
2.2509999 -4.9489999 0.301
2.2509999 -4.9489999 0.35100001
2.2509999 -4.9489999 0.40099999
2.2509999 -4.9489999 0.45100001
2.2509999 -4.9489999 0.50099999
2.2509999 -4.9489999 0.551
2.2509999 -4.9489999 0.60100001
2.2509999 -4.9489999 0.65100002
2.2509999 -4.9489999 0.70099998
2.2509999 -4.9489999 0.75099999
2.2509999 -4.9489999 0.801
2.2509999 -4.9489999 0.85100001
2.2509999 -4.9489999 0.90100002
2.2509999 -4.9489999 0.95099998
2.2509999 -4.9489999 1.001
2.2509999 -4.9489999 1.051
2.2509999 -4.9489999 1.101
2.2509999 -4.9489999 1.151
2.2509999 -4.849 0.001
2.2509999 -4.849 0.050999999
2.2509999 -4.849 0.101
2.2509999 -4.849 0.15099999
2.2509999 -4.849 0.20100001
2.2509999 -4.849 0.25099999
2.2509999 -4.849 0.301
2.2509999 -4.849 0.35100001
2.2509999 -4.849 0.40099999
2.2509999 -4.849 0.45100001
2.2509999 -4.849 0.50099999
2.2509999 -4.849 0.551
2.2509999 -4.849 0.60100001
2.2509999 -4.849 0.65100002
2.2509999 -4.849 0.70099998
2.2509999 -4.849 0.75099999
2.2509999 -4.849 0.801
2.2509999 -4.849 0.85100001
2.2509999 -4.849 0.90100002
2.2509999 -4.849 0.95099998
2.2509999 -4.849 1.001
2.2509999 -4.849 1.051
2.2509999 -4.849 1.101
2.2509999 -4.849 1.151
-2.1489999 -0.84899998 0.001
-2.1489999 -0.84899998 0.050999999
-2.1489999 -0.84899998 0.101
-2.1489999 -0.84899998 0.15099999
-2.1489999 -0.84899998 0.20100001
-2.1489999 -0.84899998 0.25099999
-2.1489999 -0.84899998 0.301
-2.1489999 -0.84899998 0.35100001
-2.1489999 -0.84899998 0.40099999
-2.1489999 -0.84899998 0.45100001
-2.1489999 -0.84899998 0.50099999
-2.1489999 -0.84899998 0.551
-2.1489999 -0.84899998 0.60100001
-2.1489999 -0.84899998 0.65100002
-2.1489999 -0.84899998 0.70099998
-2.1489999 -0.84899998 0.75099999
-2.1489999 -0.84899998 0.801
-2.1489999 -0.84899998 0.85100001
-2.1489999 -0.84899998 0.90100002
-2.1489999 -0.84899998 0.95099998
-2.1489999 -0.84899998 1.001
-2.1489999 -0.84899998 1.051
-2.1489999 -0.84899998 1.101
-2.1489999 -0.84899998 1.151
-2.1489999 -0.84899998 1.201
-2.1489999 -0.84899998 1.251
-2.1489999 -0.84899998 1.301
-2.1489999 -0.84899998 1.351
-2.1489999 -0.84899998 1.401
-2.1489999 -0.84899998 1.451
-2.1489999 -0.84899998 1.501
-2.1489999 -0.84899998 1.551
-2.1489999 -0.84899998 1.601
-2.1489999 -0.84899998 1.651
-2.1489999 -0.84899998 1.701
-2.1489999 -0.84899998 1.751
-2.1489999 -0.84899998 1.801
-2.1489999 -0.84899998 1.851
-2.1489999 -0.84899998 1.901
-2.1489999 -0.84899998 1.951
-2.1489999 -0.84899998 2.0009999
-2.1489999 -0.84899998 2.0510001
-2.1489999 -0.84899998 2.1010001
-2.1489999 -0.84899998 2.151
-2.1489999 -0.84899998 2.201
-2.1489999 -0.84899998 2.2509999
-2.1489999 -0.84899998 2.3010001
-2.1489999 -0.84899998 2.3510001
-2.1489999 -0.84899998 2.401
-2.1489999 -0.84899998 2.451
-2.1489999 -0.74900001 0.001
-2.1489999 -0.74900001 0.050999999
-2.1489999 -0.74900001 0.101
-2.1489999 -0.74900001 0.15099999
-2.1489999 -0.74900001 0.20100001
-2.1489999 -0.74900001 0.25099999
-2.1489999 -0.74900001 0.301
-2.1489999 -0.74900001 0.35100001
-2.1489999 -0.74900001 0.40099999
-2.1489999 -0.74900001 0.45100001
-2.1489999 -0.74900001 0.50099999
-2.1489999 -0.74900001 0.551
-2.1489999 -0.74900001 0.60100001
-2.1489999 -0.74900001 0.65100002
-2.1489999 -0.74900001 0.70099998
-2.1489999 -0.74900001 0.75099999
-2.1489999 -0.74900001 0.801
-2.1489999 -0.74900001 0.85100001
-2.1489999 -0.74900001 0.90100002
-2.1489999 -0.74900001 0.95099998
-2.1489999 -0.74900001 1.001
-2.1489999 -0.74900001 1.051
-2.1489999 -0.74900001 1.101
-2.1489999 -0.74900001 1.151
-2.1489999 -0.74900001 1.201
-2.1489999 -0.74900001 1.251
-2.1489999 -0.74900001 1.301
-2.1489999 -0.74900001 1.351
-2.1489999 -0.74900001 1.401
-2.1489999 -0.74900001 1.451
-2.1489999 -0.74900001 1.501
-2.1489999 -0.74900001 1.551
-2.1489999 -0.74900001 1.601
-2.1489999 -0.74900001 1.651
-2.1489999 -0.74900001 1.701
-2.1489999 -0.74900001 1.751
-2.1489999 -0.74900001 1.801
-2.1489999 -0.74900001 1.851
-2.1489999 -0.74900001 1.901
-2.1489999 -0.74900001 1.951
-2.1489999 -0.74900001 2.0009999
-2.1489999 -0.74900001 2.0510001
-2.1489999 -0.74900001 2.1010001
-2.1489999 -0.74900001 2.151
-2.1489999 -0.74900001 2.201
-2.1489999 -0.74900001 2.2509999
-2.1489999 -0.74900001 2.3010001
-2.1489999 -0.74900001 2.3510001
-2.1489999 -0.74900001 2.401
-2.1489999 -0.74900001 2.451
-2.1489999 -0.74900001 2.5009999
-2.1489999 -0.74900001 2.5510001
-2.1489999 -0.74900001 2.6010001
-2.1489999 -0.74900001 2.651
-2.1489999 -0.64899999 0.001
-2.1489999 -0.64899999 0.050999999
-2.1489999 -0.64899999 0.101
-2.1489999 -0.64899999 0.15099999
-2.1489999 -0.64899999 0.20100001
-2.1489999 -0.64899999 0.25099999
-2.1489999 -0.64899999 0.301
-2.1489999 -0.64899999 0.35100001
-2.1489999 -0.64899999 0.40099999
-2.1489999 -0.64899999 0.45100001
-2.1489999 -0.64899999 0.50099999
-2.1489999 -0.64899999 0.551
-2.1489999 -0.64899999 0.60100001
-2.1489999 -0.64899999 0.65100002
-2.1489999 -0.64899999 0.70099998
-2.1489999 -0.64899999 0.75099999
-2.1489999 -0.64899999 0.801
-2.1489999 -0.64899999 0.85100001
-2.1489999 -0.64899999 0.90100002
-2.1489999 -0.64899999 0.95099998
-2.1489999 -0.64899999 1.001
-2.1489999 -0.64899999 1.051
-2.1489999 -0.64899999 1.101
-2.1489999 -0.64899999 1.151
-2.1489999 -0.64899999 1.201
-2.1489999 -0.64899999 1.251
-2.1489999 -0.64899999 1.301
-2.1489999 -0.64899999 1.351
-2.1489999 -0.64899999 1.401
-2.1489999 -0.64899999 1.451
-2.1489999 -0.64899999 1.501
-2.1489999 -0.64899999 1.551
-2.1489999 -0.64899999 1.601
-2.1489999 -0.64899999 1.651
-2.1489999 -0.64899999 1.701
-2.1489999 -0.64899999 1.751
-2.1489999 -0.64899999 1.801
-2.1489999 -0.64899999 1.851
-2.1489999 -0.64899999 1.901
-2.1489999 -0.64899999 1.951
-2.1489999 -0.64899999 2.0009999
-2.1489999 -0.64899999 2.0510001
-2.1489999 -0.64899999 2.1010001
-2.1489999 -0.64899999 2.151
-2.1489999 -0.64899999 2.201
-2.1489999 -0.64899999 2.2509999
-2.1489999 -0.64899999 2.3010001
-2.1489999 -0.64899999 2.3510001
-2.1489999 -0.54900002 0.001
-2.1489999 -0.54900002 0.050999999
-2.1489999 -0.54900002 0.101
-2.1489999 -0.54900002 0.15099999
-2.1489999 -0.54900002 0.20100001
-2.1489999 -0.54900002 0.25099999
-2.1489999 -0.54900002 0.301
-2.1489999 -0.54900002 0.35100001
-2.1489999 -0.54900002 0.40099999
-2.1489999 -0.54900002 0.45100001
-2.1489999 -0.54900002 0.50099999
-2.1489999 -0.54900002 0.551
-2.1489999 -0.54900002 0.60100001
-2.1489999 -0.54900002 0.65100002
-2.1489999 -0.54900002 0.70099998
-2.1489999 -0.54900002 0.75099999
-2.1489999 -0.54900002 0.801
-2.1489999 -0.54900002 0.85100001
-2.1489999 -0.54900002 0.90100002
-2.1489999 -0.54900002 0.95099998
-2.1489999 -0.54900002 1.001
-2.1489999 -0.54900002 1.051
-2.1489999 -0.54900002 1.101
-2.1489999 -0.54900002 1.151
-2.1489999 -0.54900002 1.201
-2.1489999 -0.54900002 1.251
-2.1489999 -0.54900002 1.301
-2.1489999 -0.54900002 1.351
-2.1489999 -0.54900002 1.401
-2.1489999 -0.54900002 1.451
-2.049 -0.84899998 0.001
-2.049 -0.84899998 0.050999999
-2.049 -0.84899998 0.101
-2.049 -0.84899998 0.15099999
-2.049 -0.84899998 0.20100001
-2.049 -0.84899998 0.25099999
-2.049 -0.84899998 0.301
-2.049 -0.84899998 0.35100001
-2.049 -0.84899998 0.40099999
-2.049 -0.84899998 0.45100001
-2.049 -0.84899998 0.50099999
-2.049 -0.84899998 0.551
-2.049 -0.84899998 0.60100001
-2.049 -0.84899998 0.65100002
-2.049 -0.84899998 0.70099998
-2.049 -0.84899998 0.75099999
-2.049 -0.84899998 0.801
-2.049 -0.84899998 0.85100001
-2.049 -0.84899998 0.90100002
-2.049 -0.84899998 0.95099998
-2.049 -0.84899998 1.001
-2.049 -0.84899998 1.051
-2.049 -0.84899998 1.101
-2.049 -0.84899998 1.151
-2.049 -0.84899998 1.201
-2.049 -0.84899998 1.251
-2.049 -0.84899998 1.301
-2.049 -0.84899998 1.351
-2.049 -0.84899998 1.401
-2.049 -0.84899998 1.451
-2.049 -0.84899998 1.501
-2.049 -0.84899998 1.551
-2.049 -0.84899998 1.601
-2.049 -0.84899998 1.651
-2.049 -0.84899998 1.701
-2.049 -0.84899998 1.751
-2.049 -0.84899998 1.801
-2.049 -0.84899998 1.851
-2.049 -0.84899998 1.901
-2.049 -0.84899998 1.951
-2.049 -0.84899998 2.0009999
-2.049 -0.84899998 2.0510001
-2.049 -0.84899998 2.1010001
-2.049 -0.84899998 2.151
-2.049 -0.84899998 2.201
-2.049 -0.84899998 2.2509999
-2.049 -0.84899998 2.3010001
-2.049 -0.84899998 2.3510001
-2.049 -0.84899998 2.401
-2.049 -0.84899998 2.451
-2.049 -0.84899998 2.5009999
-2.049 -0.84899998 2.5510001
-2.049 -0.84899998 2.6010001
-2.049 -0.84899998 2.651
-2.049 -0.74900001 0.001
-2.049 -0.74900001 0.050999999
-2.049 -0.74900001 0.101
-2.049 -0.74900001 0.15099999
-2.049 -0.74900001 0.20100001
-2.049 -0.74900001 0.25099999
-2.049 -0.74900001 0.301
-2.049 -0.74900001 0.35100001
-2.049 -0.74900001 0.40099999
-2.049 -0.74900001 0.45100001
-2.049 -0.74900001 0.50099999
-2.049 -0.74900001 0.551
-2.049 -0.74900001 0.60100001
-2.049 -0.74900001 0.65100002
-2.049 -0.74900001 0.70099998
-2.049 -0.74900001 0.75099999
-2.049 -0.74900001 0.801
-2.049 -0.74900001 0.85100001
-2.049 -0.74900001 0.90100002
-2.049 -0.74900001 0.95099998
-2.049 -0.74900001 1.001
-2.049 -0.74900001 1.051
-2.049 -0.74900001 1.101
-2.049 -0.74900001 1.151
-2.049 -0.74900001 1.201
-2.049 -0.74900001 1.251
-2.049 -0.74900001 1.301
-2.049 -0.74900001 1.351
-2.049 -0.64899999 0.001
-2.049 -0.64899999 0.050999999
-2.049 -0.64899999 0.101
-2.049 -0.64899999 0.15099999
-2.049 -0.64899999 0.20100001
-2.049 -0.64899999 0.25099999
-2.049 -0.64899999 0.301
-2.049 -0.64899999 0.35100001
-2.049 -0.64899999 0.40099999
-2.049 -0.64899999 0.45100001
-2.049 -0.64899999 0.50099999
-2.049 -0.64899999 0.551
-2.049 -0.64899999 0.60100001
-2.049 -0.64899999 0.65100002
-2.049 -0.64899999 0.70099998
-2.049 -0.64899999 0.75099999
-2.049 -0.64899999 0.801
-2.049 -0.64899999 0.85100001
-2.049 -0.64899999 0.90100002
-2.049 -0.64899999 0.95099998
-2.049 -0.64899999 1.001
-2.049 -0.64899999 1.051
-2.049 -0.64899999 1.101
-2.049 -0.64899999 1.151
-2.049 -0.64899999 1.201
-2.049 -0.64899999 1.251
-2.049 -0.64899999 1.301
-2.049 -0.64899999 1.351
-2.049 -0.64899999 1.401
-2.049 -0.64899999 1.451
-2.049 -0.64899999 1.501
-2.049 -0.64899999 1.551
-2.049 -0.64899999 1.601
-2.049 -0.64899999 1.651
-2.049 -0.64899999 1.701
-2.049 -0.64899999 1.751
-2.049 -0.54900002 0.001
-2.049 -0.54900002 0.050999999
-2.049 -0.54900002 0.101
-2.049 -0.54900002 0.15099999
-2.049 -0.54900002 0.20100001
-2.049 -0.54900002 0.25099999
-2.049 -0.54900002 0.301
-2.049 -0.54900002 0.35100001
-2.049 -0.54900002 0.40099999
-2.049 -0.54900002 0.45100001
-2.049 -0.54900002 0.50099999
-2.049 -0.54900002 0.551
-2.049 -0.54900002 0.60100001
-2.049 -0.54900002 0.65100002
-2.049 -0.54900002 0.70099998
-2.049 -0.54900002 0.75099999
-2.049 -0.54900002 0.801
-2.049 -0.54900002 0.85100001
-2.049 -0.54900002 0.90100002
-2.049 -0.54900002 0.95099998
-2.049 -0.54900002 1.001
-2.049 -0.54900002 1.051
-2.049 -0.54900002 1.101
-2.049 -0.54900002 1.151
-2.049 -0.54900002 1.201
-2.049 -0.54900002 1.251
-2.049 -0.54900002 1.301
-2.049 -0.54900002 1.351
-2.049 -0.54900002 1.401
-2.049 -0.54900002 1.451
-2.049 -0.54900002 1.501
-2.049 -0.54900002 1.551
-2.049 -0.54900002 1.601
-2.049 -0.54900002 1.651
-2.049 -0.54900002 1.701
-2.049 -0.54900002 1.751
-2.049 -0.54900002 1.801
-2.049 -0.54900002 1.851
-2.049 -0.54900002 1.901
-2.049 -0.54900002 1.951
-2.049 -0.54900002 2.0009999
-2.049 -0.54900002 2.0510001
-1.949 -0.84899998 0.001
-1.949 -0.84899998 0.050999999
-1.949 -0.84899998 0.101
-1.949 -0.84899998 0.15099999
-1.949 -0.84899998 0.20100001
-1.949 -0.84899998 0.25099999
-1.949 -0.84899998 0.301
-1.949 -0.84899998 0.35100001
-1.949 -0.84899998 0.40099999
-1.949 -0.84899998 0.45100001
-1.949 -0.84899998 0.50099999
-1.949 -0.84899998 0.551
-1.949 -0.84899998 0.60100001
-1.949 -0.84899998 0.65100002
-1.949 -0.84899998 0.70099998
-1.949 -0.84899998 0.75099999
-1.949 -0.84899998 0.801
-1.949 -0.84899998 0.85100001
-1.949 -0.84899998 0.90100002
-1.949 -0.84899998 0.95099998
-1.949 -0.84899998 1.001
-1.949 -0.84899998 1.051
-1.949 -0.84899998 1.101
-1.949 -0.84899998 1.151
-1.949 -0.84899998 1.201
-1.949 -0.84899998 1.251
-1.949 -0.84899998 1.301
-1.949 -0.84899998 1.351
-1.949 -0.84899998 1.401
-1.949 -0.84899998 1.451
-1.949 -0.84899998 1.501
-1.949 -0.84899998 1.551
-1.949 -0.84899998 1.601
-1.949 -0.84899998 1.651
-1.949 -0.84899998 1.701
-1.949 -0.84899998 1.751
-1.949 -0.84899998 1.801
-1.949 -0.84899998 1.851
-1.949 -0.84899998 1.901
-1.949 -0.84899998 1.951
-1.949 -0.84899998 2.0009999
-1.949 -0.84899998 2.0510001
-1.949 -0.84899998 2.1010001
-1.949 -0.84899998 2.151
-1.949 -0.84899998 2.201
-1.949 -0.84899998 2.2509999
-1.949 -0.84899998 2.3010001
-1.949 -0.84899998 2.3510001
-1.949 -0.84899998 2.401
-1.949 -0.84899998 2.451
-1.949 -0.84899998 2.5009999
-1.949 -0.84899998 2.5510001
-1.949 -0.84899998 2.6010001
-1.949 -0.84899998 2.651
-1.949 -0.84899998 2.701
-1.949 -0.84899998 2.7509999
-1.949 -0.74900001 0.001
-1.949 -0.74900001 0.050999999
-1.949 -0.74900001 0.101
-1.949 -0.74900001 0.15099999
-1.949 -0.74900001 0.20100001
-1.949 -0.74900001 0.25099999
-1.949 -0.74900001 0.301
-1.949 -0.74900001 0.35100001
-1.949 -0.74900001 0.40099999
-1.949 -0.74900001 0.45100001
-1.949 -0.74900001 0.50099999
-1.949 -0.74900001 0.551
-1.949 -0.74900001 0.60100001
-1.949 -0.74900001 0.65100002
-1.949 -0.74900001 0.70099998
-1.949 -0.74900001 0.75099999
-1.949 -0.74900001 0.801
-1.949 -0.74900001 0.85100001
-1.949 -0.74900001 0.90100002
-1.949 -0.74900001 0.95099998
-1.949 -0.74900001 1.001
-1.949 -0.74900001 1.051
-1.949 -0.64899999 0.001
-1.949 -0.64899999 0.050999999
-1.949 -0.64899999 0.101
-1.949 -0.64899999 0.15099999
-1.949 -0.64899999 0.20100001
-1.949 -0.64899999 0.25099999
-1.949 -0.64899999 0.301
-1.949 -0.64899999 0.35100001
-1.949 -0.64899999 0.40099999
-1.949 -0.64899999 0.45100001
-1.949 -0.64899999 0.50099999
-1.949 -0.64899999 0.551
-1.949 -0.64899999 0.60100001
-1.949 -0.64899999 0.65100002
-1.949 -0.64899999 0.70099998
-1.949 -0.64899999 0.75099999
-1.949 -0.64899999 0.801
-1.949 -0.64899999 0.85100001
-1.949 -0.64899999 0.90100002
-1.949 -0.64899999 0.95099998
-1.949 -0.64899999 1.001
-1.949 -0.64899999 1.051
-1.949 -0.64899999 1.101
-1.949 -0.64899999 1.151
-1.949 -0.64899999 1.201
-1.949 -0.64899999 1.251
-1.949 -0.64899999 1.301
-1.949 -0.64899999 1.351
-1.949 -0.64899999 1.401
-1.949 -0.64899999 1.451
-1.949 -0.64899999 1.501
-1.949 -0.64899999 1.551
-1.949 -0.64899999 1.601
-1.949 -0.64899999 1.651
-1.949 -0.64899999 1.701
-1.949 -0.64899999 1.751
-1.949 -0.64899999 1.801
-1.949 -0.64899999 1.851
-1.949 -0.64899999 1.901
-1.949 -0.64899999 1.951
-1.949 -0.64899999 2.0009999
-1.949 -0.64899999 2.0510001
-1.949 -0.64899999 2.1010001
-1.949 -0.64899999 2.151
-1.949 -0.64899999 2.201
-1.949 -0.64899999 2.2509999
-1.949 -0.64899999 2.3010001
-1.949 -0.64899999 2.3510001
-1.949 -0.64899999 2.401
-1.949 -0.64899999 2.451
-1.949 -0.64899999 2.5009999
-1.949 -0.64899999 2.5510001
-1.949 -0.64899999 2.6010001
-1.949 -0.64899999 2.651
-1.949 -0.64899999 2.701
-1.949 -0.64899999 2.7509999
-1.949 -0.64899999 2.8010001
-1.949 -0.64899999 2.8510001
-1.949 -0.64899999 2.901
-1.949 -0.64899999 2.951
-1.949 -0.54900002 0.001
-1.949 -0.54900002 0.050999999
-1.949 -0.54900002 0.101
-1.949 -0.54900002 0.15099999
-1.949 -0.54900002 0.20100001
-1.949 -0.54900002 0.25099999
-1.949 -0.54900002 0.301
-1.949 -0.54900002 0.35100001
-1.949 -0.54900002 0.40099999
-1.949 -0.54900002 0.45100001
-1.949 -0.54900002 0.50099999
-1.949 -0.54900002 0.551
-1.949 -0.54900002 0.60100001
-1.949 -0.54900002 0.65100002
-1.949 -0.54900002 0.70099998
-1.949 -0.54900002 0.75099999
-1.949 -0.54900002 0.801
-1.949 -0.54900002 0.85100001
-1.949 -0.54900002 0.90100002
-1.949 -0.54900002 0.95099998
-1.949 -0.54900002 1.001
-1.949 -0.54900002 1.051
-1.949 -0.54900002 1.101
-1.949 -0.54900002 1.151
-1.949 -0.54900002 1.201
-1.949 -0.54900002 1.251
-1.849 -0.84899998 0.001
-1.849 -0.84899998 0.050999999
-1.849 -0.84899998 0.101
-1.849 -0.84899998 0.15099999
-1.849 -0.84899998 0.20100001
-1.849 -0.84899998 0.25099999
-1.849 -0.84899998 0.301
-1.849 -0.84899998 0.35100001
-1.849 -0.84899998 0.40099999
-1.849 -0.84899998 0.45100001
-1.849 -0.84899998 0.50099999
-1.849 -0.84899998 0.551
-1.849 -0.84899998 0.60100001
-1.849 -0.84899998 0.65100002
-1.849 -0.84899998 0.70099998
-1.849 -0.84899998 0.75099999
-1.849 -0.84899998 0.801
-1.849 -0.84899998 0.85100001
-1.849 -0.84899998 0.90100002
-1.849 -0.84899998 0.95099998
-1.849 -0.84899998 1.001
-1.849 -0.84899998 1.051
-1.849 -0.84899998 1.101
-1.849 -0.84899998 1.151
-1.849 -0.84899998 1.201
-1.849 -0.84899998 1.251
-1.849 -0.84899998 1.301
-1.849 -0.84899998 1.351
-1.849 -0.84899998 1.401
-1.849 -0.84899998 1.451
-1.849 -0.84899998 1.501
-1.849 -0.84899998 1.551
-1.849 -0.84899998 1.601
-1.849 -0.84899998 1.651
-1.849 -0.84899998 1.701
-1.849 -0.84899998 1.751
-1.849 -0.84899998 1.801
-1.849 -0.84899998 1.851
-1.849 -0.74900001 0.001
-1.849 -0.74900001 0.050999999
-1.849 -0.74900001 0.101
-1.849 -0.74900001 0.15099999
-1.849 -0.74900001 0.20100001
-1.849 -0.74900001 0.25099999
-1.849 -0.74900001 0.301
-1.849 -0.74900001 0.35100001
-1.849 -0.74900001 0.40099999
-1.849 -0.74900001 0.45100001
-1.849 -0.74900001 0.50099999
-1.849 -0.74900001 0.551
-1.849 -0.74900001 0.60100001
-1.849 -0.74900001 0.65100002
-1.849 -0.74900001 0.70099998
-1.849 -0.74900001 0.75099999
-1.849 -0.74900001 0.801
-1.849 -0.74900001 0.85100001
-1.849 -0.74900001 0.90100002
-1.849 -0.74900001 0.95099998
-1.849 -0.74900001 1.001
-1.849 -0.74900001 1.051
-1.849 -0.74900001 1.101
-1.849 -0.74900001 1.151
-1.849 -0.74900001 1.201
-1.849 -0.74900001 1.251
-1.849 -0.74900001 1.301
-1.849 -0.74900001 1.351
-1.849 -0.74900001 1.401
-1.849 -0.74900001 1.451
-1.849 -0.74900001 1.501
-1.849 -0.74900001 1.551
-1.849 -0.74900001 1.601
-1.849 -0.74900001 1.651
-1.849 -0.74900001 1.701
-1.849 -0.74900001 1.751
-1.849 -0.74900001 1.801
-1.849 -0.74900001 1.851
-1.849 -0.74900001 1.901
-1.849 -0.74900001 1.951
-1.849 -0.74900001 2.0009999
-1.849 -0.74900001 2.0510001
-1.849 -0.64899999 0.001
-1.849 -0.64899999 0.050999999
-1.849 -0.64899999 0.101
-1.849 -0.64899999 0.15099999
-1.849 -0.64899999 0.20100001
-1.849 -0.64899999 0.25099999
-1.849 -0.64899999 0.301
-1.849 -0.64899999 0.35100001
-1.849 -0.64899999 0.40099999
-1.849 -0.64899999 0.45100001
-1.849 -0.64899999 0.50099999
-1.849 -0.64899999 0.551
-1.849 -0.64899999 0.60100001
-1.849 -0.64899999 0.65100002
-1.849 -0.64899999 0.70099998
-1.849 -0.64899999 0.75099999
-1.849 -0.64899999 0.801
-1.849 -0.64899999 0.85100001
-1.849 -0.64899999 0.90100002
-1.849 -0.64899999 0.95099998
-1.849 -0.64899999 1.001
-1.849 -0.64899999 1.051
-1.849 -0.64899999 1.101
-1.849 -0.64899999 1.151
-1.849 -0.64899999 1.201
-1.849 -0.64899999 1.251
-1.849 -0.64899999 1.301
-1.849 -0.64899999 1.351
-1.849 -0.64899999 1.401
-1.849 -0.64899999 1.451
-1.849 -0.54900002 0.001
-1.849 -0.54900002 0.050999999
-1.849 -0.54900002 0.101
-1.849 -0.54900002 0.15099999
-1.849 -0.54900002 0.20100001
-1.849 -0.54900002 0.25099999
-1.849 -0.54900002 0.301
-1.849 -0.54900002 0.35100001
-1.849 -0.54900002 0.40099999
-1.849 -0.54900002 0.45100001
-1.849 -0.54900002 0.50099999
-1.849 -0.54900002 0.551
-1.849 -0.54900002 0.60100001
-1.849 -0.54900002 0.65100002
-1.849 -0.54900002 0.70099998
-1.849 -0.54900002 0.75099999
-1.849 -0.54900002 0.801
-1.849 -0.54900002 0.85100001
-1.849 -0.54900002 0.90100002
-1.849 -0.54900002 0.95099998
-1.849 -0.54900002 1.001
-1.849 -0.54900002 1.051
-1.849 -0.54900002 1.101
-1.849 -0.54900002 1.151
-1.849 -0.54900002 1.201
-1.849 -0.54900002 1.251
-1.849 -0.54900002 1.301
-1.849 -0.54900002 1.351
-1.849 -0.54900002 1.401
-1.849 -0.54900002 1.451
-1.849 -0.54900002 1.501
-1.849 -0.54900002 1.551
-1.849 -0.54900002 1.601
-1.849 -0.54900002 1.651
-1.849 -0.54900002 1.701
-1.849 -0.54900002 1.751
-1.849 -0.54900002 1.801
-1.849 -0.54900002 1.851
-1.849 -0.54900002 1.901
-1.849 -0.54900002 1.951
-1.849 -0.54900002 2.0009999
-1.849 -0.54900002 2.0510001
-1.849 -0.54900002 2.1010001
-1.849 -0.54900002 2.151
-1.849 -0.54900002 2.201
-1.849 -0.54900002 2.2509999
-1.849 -0.54900002 2.3010001
-1.849 -0.54900002 2.3510001
-1.849 -0.54900002 2.401
-1.849 -0.54900002 2.451
-1.849 -0.54900002 2.5009999
-1.849 -0.54900002 2.5510001
-1.849 -0.54900002 2.6010001
-1.849 -0.54900002 2.651
-1.849 -0.54900002 2.701
-1.849 -0.54900002 2.7509999
-1.849 -0.54900002 2.8010001
-1.849 -0.54900002 2.8510001
-1.849 -0.54900002 2.901
-1.849 -0.54900002 2.951
-4.6490002 -5.0489998 0.001
-4.6490002 -5.0489998 0.050999999
-4.6490002 -5.0489998 0.101
-4.6490002 -5.0489998 0.15099999
-4.6490002 -5.0489998 0.20100001
-4.6490002 -5.0489998 0.25099999
-4.6490002 -5.0489998 0.301
-4.6490002 -5.0489998 0.35100001
-4.6490002 -5.0489998 0.40099999
-4.6490002 -5.0489998 0.45100001
-4.6490002 -5.0489998 0.50099999
-4.6490002 -5.0489998 0.551
-4.6490002 -5.0489998 0.60100001
-4.6490002 -5.0489998 0.65100002
-4.6490002 -5.0489998 0.70099998
-4.6490002 -5.0489998 0.75099999
-4.6490002 -5.0489998 0.801
-4.6490002 -5.0489998 0.85100001
-4.6490002 -5.0489998 0.90100002
-4.6490002 -5.0489998 0.95099998
-4.6490002 -5.0489998 1.001
-4.6490002 -5.0489998 1.051
-4.6490002 -5.0489998 1.101
-4.6490002 -5.0489998 1.151
-4.6490002 -5.0489998 1.201
-4.6490002 -5.0489998 1.251
-4.6490002 -5.0489998 1.301
-4.6490002 -5.0489998 1.351
-4.6490002 -5.0489998 1.401
-4.6490002 -5.0489998 1.451
-4.6490002 -5.0489998 1.501
-4.6490002 -5.0489998 1.551
-4.6490002 -5.0489998 1.601
-4.6490002 -5.0489998 1.651
-4.6490002 -5.0489998 1.701
-4.6490002 -5.0489998 1.751
-4.6490002 -5.0489998 1.801
-4.6490002 -5.0489998 1.851
-4.6490002 -5.0489998 1.901
-4.6490002 -5.0489998 1.951
-4.6490002 -5.0489998 2.0009999
-4.6490002 -5.0489998 2.0510001
-4.6490002 -5.0489998 2.1010001
-4.6490002 -5.0489998 2.151
-4.6490002 -4.9489999 0.001
-4.6490002 -4.9489999 0.050999999
-4.6490002 -4.9489999 0.101
-4.6490002 -4.9489999 0.15099999
-4.6490002 -4.9489999 0.20100001
-4.6490002 -4.9489999 0.25099999
-4.6490002 -4.9489999 0.301
-4.6490002 -4.9489999 0.35100001
-4.6490002 -4.9489999 0.40099999
-4.6490002 -4.9489999 0.45100001
-4.6490002 -4.9489999 0.50099999
-4.6490002 -4.9489999 0.551
-4.6490002 -4.9489999 0.60100001
-4.6490002 -4.9489999 0.65100002
-4.6490002 -4.9489999 0.70099998
-4.6490002 -4.9489999 0.75099999
-4.6490002 -4.9489999 0.801
-4.6490002 -4.9489999 0.85100001
-4.6490002 -4.9489999 0.90100002
-4.6490002 -4.9489999 0.95099998
-4.6490002 -4.9489999 1.001
-4.6490002 -4.9489999 1.051
-4.6490002 -4.9489999 1.101
-4.6490002 -4.9489999 1.151
-4.6490002 -4.9489999 1.201
-4.6490002 -4.9489999 1.251
-4.6490002 -4.9489999 1.301
-4.6490002 -4.9489999 1.351
-4.6490002 -4.9489999 1.401
-4.6490002 -4.9489999 1.451
-4.6490002 -4.9489999 1.501
-4.6490002 -4.9489999 1.551
-4.6490002 -4.9489999 1.601
-4.6490002 -4.9489999 1.651
-4.6490002 -4.9489999 1.701
-4.6490002 -4.9489999 1.751
-4.6490002 -4.9489999 1.801
-4.6490002 -4.9489999 1.851
-4.6490002 -4.9489999 1.901
-4.6490002 -4.9489999 1.951
-4.6490002 -4.9489999 2.0009999
-4.6490002 -4.9489999 2.0510001
-4.6490002 -4.9489999 2.1010001
-4.6490002 -4.9489999 2.151
-4.6490002 -4.9489999 2.201
-4.6490002 -4.9489999 2.2509999
-4.6490002 -4.9489999 2.3010001
-4.6490002 -4.9489999 2.3510001
-4.6490002 -4.9489999 2.401
-4.6490002 -4.9489999 2.451
-4.6490002 -4.849 0.001
-4.6490002 -4.849 0.050999999
-4.6490002 -4.849 0.101
-4.6490002 -4.849 0.15099999
-4.6490002 -4.849 0.20100001
-4.6490002 -4.849 0.25099999
-4.6490002 -4.849 0.301
-4.6490002 -4.849 0.35100001
-4.6490002 -4.849 0.40099999
-4.6490002 -4.849 0.45100001
-4.6490002 -4.849 0.50099999
-4.6490002 -4.849 0.551
-4.6490002 -4.849 0.60100001
-4.6490002 -4.849 0.65100002
-4.6490002 -4.849 0.70099998
-4.6490002 -4.849 0.75099999
-4.6490002 -4.849 0.801
-4.6490002 -4.849 0.85100001
-4.6490002 -4.849 0.90100002
-4.6490002 -4.849 0.95099998
-4.6490002 -4.849 1.001
-4.6490002 -4.849 1.051
-4.6490002 -4.849 1.101
-4.6490002 -4.849 1.151
-4.6490002 -4.849 1.201
-4.6490002 -4.849 1.251
-4.6490002 -4.849 1.301
-4.6490002 -4.849 1.351
-4.6490002 -4.7490001 0.001
-4.6490002 -4.7490001 0.050999999
-4.6490002 -4.7490001 0.101
-4.6490002 -4.7490001 0.15099999
-4.6490002 -4.7490001 0.20100001
-4.6490002 -4.7490001 0.25099999
-4.6490002 -4.7490001 0.301
-4.6490002 -4.7490001 0.35100001
-4.6490002 -4.7490001 0.40099999
-4.6490002 -4.7490001 0.45100001
-4.6490002 -4.7490001 0.50099999
-4.6490002 -4.7490001 0.551
-4.6490002 -4.7490001 0.60100001
-4.6490002 -4.7490001 0.65100002
-4.6490002 -4.7490001 0.70099998
-4.6490002 -4.7490001 0.75099999
-4.6490002 -4.7490001 0.801
-4.6490002 -4.7490001 0.85100001
-4.6490002 -4.7490001 0.90100002
-4.6490002 -4.7490001 0.95099998
-4.6490002 -4.7490001 1.001
-4.6490002 -4.7490001 1.051
-4.6490002 -4.7490001 1.101
-4.6490002 -4.7490001 1.151
-4.6490002 -4.7490001 1.201
-4.6490002 -4.7490001 1.251
-4.6490002 -4.7490001 1.301
-4.6490002 -4.7490001 1.351
-4.6490002 -4.7490001 1.401
-4.6490002 -4.7490001 1.451
-4.6490002 -4.7490001 1.501
-4.6490002 -4.7490001 1.551
-4.6490002 -4.7490001 1.601
-4.6490002 -4.7490001 1.651
-4.6490002 -4.7490001 1.701
-4.6490002 -4.7490001 1.751
-4.6490002 -4.7490001 1.801
-4.6490002 -4.7490001 1.851
-4.6490002 -4.7490001 1.901
-4.6490002 -4.7490001 1.951
-4.6490002 -4.7490001 2.0009999
-4.6490002 -4.7490001 2.0510001
-4.6490002 -4.7490001 2.1010001
-4.6490002 -4.7490001 2.151
-4.6490002 -4.7490001 2.201
-4.6490002 -4.7490001 2.2509999
-4.5489998 -5.0489998 0.001
-4.5489998 -5.0489998 0.050999999
-4.5489998 -5.0489998 0.101
-4.5489998 -5.0489998 0.15099999
-4.5489998 -5.0489998 0.20100001
-4.5489998 -5.0489998 0.25099999
-4.5489998 -5.0489998 0.301
-4.5489998 -5.0489998 0.35100001
-4.5489998 -5.0489998 0.40099999
-4.5489998 -5.0489998 0.45100001
-4.5489998 -5.0489998 0.50099999
-4.5489998 -5.0489998 0.551
-4.5489998 -5.0489998 0.60100001
-4.5489998 -5.0489998 0.65100002
-4.5489998 -5.0489998 0.70099998
-4.5489998 -5.0489998 0.75099999
-4.5489998 -5.0489998 0.801
-4.5489998 -5.0489998 0.85100001
-4.5489998 -5.0489998 0.90100002
-4.5489998 -5.0489998 0.95099998
-4.5489998 -5.0489998 1.001
-4.5489998 -5.0489998 1.051
-4.5489998 -5.0489998 1.101
-4.5489998 -5.0489998 1.151
-4.5489998 -5.0489998 1.201
-4.5489998 -5.0489998 1.251
-4.5489998 -5.0489998 1.301
-4.5489998 -5.0489998 1.351
-4.5489998 -5.0489998 1.401
-4.5489998 -5.0489998 1.451
-4.5489998 -5.0489998 1.501
-4.5489998 -5.0489998 1.551
-4.5489998 -5.0489998 1.601
-4.5489998 -5.0489998 1.651
-4.5489998 -5.0489998 1.701
-4.5489998 -5.0489998 1.751
-4.5489998 -5.0489998 1.801
-4.5489998 -5.0489998 1.851
-4.5489998 -5.0489998 1.901
-4.5489998 -5.0489998 1.951
-4.5489998 -5.0489998 2.0009999
-4.5489998 -5.0489998 2.0510001
-4.5489998 -5.0489998 2.1010001
-4.5489998 -5.0489998 2.151
-4.5489998 -5.0489998 2.201
-4.5489998 -5.0489998 2.2509999
-4.5489998 -5.0489998 2.3010001
-4.5489998 -5.0489998 2.3510001
-4.5489998 -4.9489999 0.001
-4.5489998 -4.9489999 0.050999999
-4.5489998 -4.9489999 0.101
-4.5489998 -4.9489999 0.15099999
-4.5489998 -4.9489999 0.20100001
-4.5489998 -4.9489999 0.25099999
-4.5489998 -4.9489999 0.301
-4.5489998 -4.9489999 0.35100001
-4.5489998 -4.9489999 0.40099999
-4.5489998 -4.9489999 0.45100001
-4.5489998 -4.9489999 0.50099999
-4.5489998 -4.9489999 0.551
-4.5489998 -4.9489999 0.60100001
-4.5489998 -4.9489999 0.65100002
-4.5489998 -4.9489999 0.70099998
-4.5489998 -4.9489999 0.75099999
-4.5489998 -4.9489999 0.801
-4.5489998 -4.9489999 0.85100001
-4.5489998 -4.9489999 0.90100002
-4.5489998 -4.9489999 0.95099998
-4.5489998 -4.9489999 1.001
-4.5489998 -4.9489999 1.051
-4.5489998 -4.9489999 1.101
-4.5489998 -4.9489999 1.151
-4.5489998 -4.9489999 1.201
-4.5489998 -4.9489999 1.251
-4.5489998 -4.9489999 1.301
-4.5489998 -4.9489999 1.351
-4.5489998 -4.9489999 1.401
-4.5489998 -4.9489999 1.451
-4.5489998 -4.9489999 1.501
-4.5489998 -4.9489999 1.551
-4.5489998 -4.9489999 1.601
-4.5489998 -4.9489999 1.651
-4.5489998 -4.9489999 1.701
-4.5489998 -4.9489999 1.751
-4.5489998 -4.9489999 1.801
-4.5489998 -4.9489999 1.851
-4.5489998 -4.9489999 1.901
-4.5489998 -4.9489999 1.951
-4.5489998 -4.9489999 2.0009999
-4.5489998 -4.9489999 2.0510001
-4.5489998 -4.9489999 2.1010001
-4.5489998 -4.9489999 2.151
-4.5489998 -4.9489999 2.201
-4.5489998 -4.9489999 2.2509999
-4.5489998 -4.9489999 2.3010001
-4.5489998 -4.9489999 2.3510001
-4.5489998 -4.9489999 2.401
-4.5489998 -4.9489999 2.451
-4.5489998 -4.9489999 2.5009999
-4.5489998 -4.9489999 2.5510001
-4.5489998 -4.9489999 2.6010001
-4.5489998 -4.9489999 2.651
-4.5489998 -4.9489999 2.701
-4.5489998 -4.9489999 2.7509999
-4.5489998 -4.9489999 2.8010001
-4.5489998 -4.9489999 2.8510001
-4.5489998 -4.849 0.001
-4.5489998 -4.849 0.050999999
-4.5489998 -4.849 0.101
-4.5489998 -4.849 0.15099999
-4.5489998 -4.849 0.20100001
-4.5489998 -4.849 0.25099999
-4.5489998 -4.849 0.301
-4.5489998 -4.849 0.35100001
-4.5489998 -4.849 0.40099999
-4.5489998 -4.849 0.45100001
-4.5489998 -4.849 0.50099999
-4.5489998 -4.849 0.551
-4.5489998 -4.849 0.60100001
-4.5489998 -4.849 0.65100002
-4.5489998 -4.849 0.70099998
-4.5489998 -4.849 0.75099999
-4.5489998 -4.849 0.801
-4.5489998 -4.849 0.85100001
-4.5489998 -4.849 0.90100002
-4.5489998 -4.849 0.95099998
-4.5489998 -4.849 1.001
-4.5489998 -4.849 1.051
-4.5489998 -4.849 1.101
-4.5489998 -4.849 1.151
-4.5489998 -4.849 1.201
-4.5489998 -4.849 1.251
-4.5489998 -4.849 1.301
-4.5489998 -4.849 1.351
-4.5489998 -4.849 1.401
-4.5489998 -4.849 1.451
-4.5489998 -4.849 1.501
-4.5489998 -4.849 1.551
-4.5489998 -4.849 1.601
-4.5489998 -4.849 1.651
-4.5489998 -4.849 1.701
-4.5489998 -4.849 1.751
-4.5489998 -4.849 1.801
-4.5489998 -4.849 1.851
-4.5489998 -4.849 1.901
-4.5489998 -4.849 1.951
-4.5489998 -4.849 2.0009999
-4.5489998 -4.849 2.0510001
-4.5489998 -4.849 2.1010001
-4.5489998 -4.849 2.151
-4.5489998 -4.849 2.201
-4.5489998 -4.849 2.2509999
-4.5489998 -4.849 2.3010001
-4.5489998 -4.849 2.3510001
-4.5489998 -4.849 2.401
-4.5489998 -4.849 2.451
-4.5489998 -4.849 2.5009999
-4.5489998 -4.849 2.5510001
-4.5489998 -4.849 2.6010001
-4.5489998 -4.849 2.651
-4.5489998 -4.849 2.701
-4.5489998 -4.849 2.7509999
-4.5489998 -4.849 2.8010001
-4.5489998 -4.849 2.8510001
-4.5489998 -4.849 2.901
-4.5489998 -4.849 2.951
-4.5489998 -4.7490001 0.001
-4.5489998 -4.7490001 0.050999999
-4.5489998 -4.7490001 0.101
-4.5489998 -4.7490001 0.15099999
-4.5489998 -4.7490001 0.20100001
-4.5489998 -4.7490001 0.25099999
-4.5489998 -4.7490001 0.301
-4.5489998 -4.7490001 0.35100001
-4.5489998 -4.7490001 0.40099999
-4.5489998 -4.7490001 0.45100001
-4.5489998 -4.7490001 0.50099999
-4.5489998 -4.7490001 0.551
-4.5489998 -4.7490001 0.60100001
-4.5489998 -4.7490001 0.65100002
-4.5489998 -4.7490001 0.70099998
-4.5489998 -4.7490001 0.75099999
-4.5489998 -4.7490001 0.801
-4.5489998 -4.7490001 0.85100001
-4.5489998 -4.7490001 0.90100002
-4.5489998 -4.7490001 0.95099998
-4.5489998 -4.7490001 1.001
-4.5489998 -4.7490001 1.051
-4.5489998 -4.7490001 1.101
-4.5489998 -4.7490001 1.151
-4.5489998 -4.7490001 1.201
-4.5489998 -4.7490001 1.251
-4.4489999 -5.0489998 0.001
-4.4489999 -5.0489998 0.050999999
-4.4489999 -5.0489998 0.101
-4.4489999 -5.0489998 0.15099999
-4.4489999 -5.0489998 0.20100001
-4.4489999 -5.0489998 0.25099999
-4.4489999 -5.0489998 0.301
-4.4489999 -5.0489998 0.35100001
-4.4489999 -5.0489998 0.40099999
-4.4489999 -5.0489998 0.45100001
-4.4489999 -5.0489998 0.50099999
-4.4489999 -5.0489998 0.551
-4.4489999 -5.0489998 0.60100001
-4.4489999 -5.0489998 0.65100002
-4.4489999 -5.0489998 0.70099998
-4.4489999 -5.0489998 0.75099999
-4.4489999 -5.0489998 0.801
-4.4489999 -5.0489998 0.85100001
-4.4489999 -5.0489998 0.90100002
-4.4489999 -5.0489998 0.95099998
-4.4489999 -5.0489998 1.001
-4.4489999 -5.0489998 1.051
-4.4489999 -5.0489998 1.101
-4.4489999 -5.0489998 1.151
-4.4489999 -5.0489998 1.201
-4.4489999 -5.0489998 1.251
-4.4489999 -5.0489998 1.301
-4.4489999 -5.0489998 1.351
-4.4489999 -5.0489998 1.401
-4.4489999 -5.0489998 1.451
-4.4489999 -5.0489998 1.501
-4.4489999 -5.0489998 1.551
-4.4489999 -5.0489998 1.601
-4.4489999 -5.0489998 1.651
-4.4489999 -5.0489998 1.701
-4.4489999 -5.0489998 1.751
-4.4489999 -5.0489998 1.801
-4.4489999 -5.0489998 1.851
-4.4489999 -5.0489998 1.901
-4.4489999 -5.0489998 1.951
-4.4489999 -5.0489998 2.0009999
-4.4489999 -5.0489998 2.0510001
-4.4489999 -4.9489999 0.001
-4.4489999 -4.9489999 0.050999999
-4.4489999 -4.9489999 0.101
-4.4489999 -4.9489999 0.15099999
-4.4489999 -4.9489999 0.20100001
-4.4489999 -4.9489999 0.25099999
-4.4489999 -4.9489999 0.301
-4.4489999 -4.9489999 0.35100001
-4.4489999 -4.9489999 0.40099999
-4.4489999 -4.9489999 0.45100001
-4.4489999 -4.9489999 0.50099999
-4.4489999 -4.9489999 0.551
-4.4489999 -4.9489999 0.60100001
-4.4489999 -4.9489999 0.65100002
-4.4489999 -4.9489999 0.70099998
-4.4489999 -4.9489999 0.75099999
-4.4489999 -4.9489999 0.801
-4.4489999 -4.9489999 0.85100001
-4.4489999 -4.9489999 0.90100002
-4.4489999 -4.9489999 0.95099998
-4.4489999 -4.9489999 1.001
-4.4489999 -4.9489999 1.051
-4.4489999 -4.9489999 1.101
-4.4489999 -4.9489999 1.151
-4.4489999 -4.9489999 1.201
-4.4489999 -4.9489999 1.251
-4.4489999 -4.9489999 1.301
-4.4489999 -4.9489999 1.351
-4.4489999 -4.9489999 1.401
-4.4489999 -4.9489999 1.451
-4.4489999 -4.9489999 1.501
-4.4489999 -4.9489999 1.551
-4.4489999 -4.9489999 1.601
-4.4489999 -4.9489999 1.651
-4.4489999 -4.9489999 1.701
-4.4489999 -4.9489999 1.751
-4.4489999 -4.9489999 1.801
-4.4489999 -4.9489999 1.851
-4.4489999 -4.9489999 1.901
-4.4489999 -4.9489999 1.951
-4.4489999 -4.9489999 2.0009999
-4.4489999 -4.9489999 2.0510001
-4.4489999 -4.9489999 2.1010001
-4.4489999 -4.9489999 2.151
-4.4489999 -4.9489999 2.201
-4.4489999 -4.9489999 2.2509999
-4.4489999 -4.9489999 2.3010001
-4.4489999 -4.9489999 2.3510001
-4.4489999 -4.9489999 2.401
-4.4489999 -4.9489999 2.451
-4.4489999 -4.9489999 2.5009999
-4.4489999 -4.9489999 2.5510001
-4.4489999 -4.849 0.001
-4.4489999 -4.849 0.050999999
-4.4489999 -4.849 0.101
-4.4489999 -4.849 0.15099999
-4.4489999 -4.849 0.20100001
-4.4489999 -4.849 0.25099999
-4.4489999 -4.849 0.301
-4.4489999 -4.849 0.35100001
-4.4489999 -4.849 0.40099999
-4.4489999 -4.849 0.45100001
-4.4489999 -4.849 0.50099999
-4.4489999 -4.849 0.551
-4.4489999 -4.849 0.60100001
-4.4489999 -4.849 0.65100002
-4.4489999 -4.849 0.70099998
-4.4489999 -4.849 0.75099999
-4.4489999 -4.849 0.801
-4.4489999 -4.849 0.85100001
-4.4489999 -4.849 0.90100002
-4.4489999 -4.849 0.95099998
-4.4489999 -4.849 1.001
-4.4489999 -4.849 1.051
-4.4489999 -4.849 1.101
-4.4489999 -4.849 1.151
-4.4489999 -4.849 1.201
-4.4489999 -4.849 1.251
-4.4489999 -4.849 1.301
-4.4489999 -4.849 1.351
-4.4489999 -4.849 1.401
-4.4489999 -4.849 1.451
-4.4489999 -4.849 1.501
-4.4489999 -4.849 1.551
-4.4489999 -4.849 1.601
-4.4489999 -4.849 1.651
-4.4489999 -4.849 1.701
-4.4489999 -4.849 1.751
-4.4489999 -4.849 1.801
-4.4489999 -4.849 1.851
-4.4489999 -4.849 1.901
-4.4489999 -4.849 1.951
-4.4489999 -4.849 2.0009999
-4.4489999 -4.849 2.0510001
-4.4489999 -4.849 2.1010001
-4.4489999 -4.849 2.151
-4.4489999 -4.7490001 0.001
-4.4489999 -4.7490001 0.050999999
-4.4489999 -4.7490001 0.101
-4.4489999 -4.7490001 0.15099999
-4.4489999 -4.7490001 0.20100001
-4.4489999 -4.7490001 0.25099999
-4.4489999 -4.7490001 0.301
-4.4489999 -4.7490001 0.35100001
-4.4489999 -4.7490001 0.40099999
-4.4489999 -4.7490001 0.45100001
-4.4489999 -4.7490001 0.50099999
-4.4489999 -4.7490001 0.551
-4.4489999 -4.7490001 0.60100001
-4.4489999 -4.7490001 0.65100002
-4.4489999 -4.7490001 0.70099998
-4.4489999 -4.7490001 0.75099999
-4.4489999 -4.7490001 0.801
-4.4489999 -4.7490001 0.85100001
-4.4489999 -4.7490001 0.90100002
-4.4489999 -4.7490001 0.95099998
-4.4489999 -4.7490001 1.001
-4.4489999 -4.7490001 1.051
-4.4489999 -4.7490001 1.101
-4.4489999 -4.7490001 1.151
-4.4489999 -4.7490001 1.201
-4.4489999 -4.7490001 1.251
-4.4489999 -4.7490001 1.301
-4.4489999 -4.7490001 1.351
-4.4489999 -4.7490001 1.401
-4.4489999 -4.7490001 1.451
-4.4489999 -4.7490001 1.501
-4.4489999 -4.7490001 1.551
-4.4489999 -4.7490001 1.601
-4.4489999 -4.7490001 1.651
-4.4489999 -4.7490001 1.701
-4.4489999 -4.7490001 1.751
-4.4489999 -4.7490001 1.801
-4.4489999 -4.7490001 1.851
-4.4489999 -4.7490001 1.901
-4.4489999 -4.7490001 1.951
-4.4489999 -4.7490001 2.0009999
-4.4489999 -4.7490001 2.0510001
-4.4489999 -4.7490001 2.1010001
-4.4489999 -4.7490001 2.151
-4.4489999 -4.7490001 2.201
-4.4489999 -4.7490001 2.2509999
-4.4489999 -4.7490001 2.3010001
-4.4489999 -4.7490001 2.3510001
-4.4489999 -4.7490001 2.401
-4.4489999 -4.7490001 2.451
-4.4489999 -4.7490001 2.5009999
-4.4489999 -4.7490001 2.5510001
-4.349 -5.0489998 0.001
-4.349 -5.0489998 0.050999999
-4.349 -5.0489998 0.101
-4.349 -5.0489998 0.15099999
-4.349 -5.0489998 0.20100001
-4.349 -5.0489998 0.25099999
-4.349 -5.0489998 0.301
-4.349 -5.0489998 0.35100001
-4.349 -5.0489998 0.40099999
-4.349 -5.0489998 0.45100001
-4.349 -5.0489998 0.50099999
-4.349 -5.0489998 0.551
-4.349 -5.0489998 0.60100001
-4.349 -5.0489998 0.65100002
-4.349 -5.0489998 0.70099998
-4.349 -5.0489998 0.75099999
-4.349 -5.0489998 0.801
-4.349 -5.0489998 0.85100001
-4.349 -5.0489998 0.90100002
-4.349 -5.0489998 0.95099998
-4.349 -5.0489998 1.001
-4.349 -5.0489998 1.051
-4.349 -5.0489998 1.101
-4.349 -5.0489998 1.151
-4.349 -5.0489998 1.201
-4.349 -5.0489998 1.251
-4.349 -5.0489998 1.301
-4.349 -5.0489998 1.351
-4.349 -4.9489999 0.001
-4.349 -4.9489999 0.050999999
-4.349 -4.9489999 0.101
-4.349 -4.9489999 0.15099999
-4.349 -4.9489999 0.20100001
-4.349 -4.9489999 0.25099999
-4.349 -4.9489999 0.301
-4.349 -4.9489999 0.35100001
-4.349 -4.9489999 0.40099999
-4.349 -4.9489999 0.45100001
-4.349 -4.9489999 0.50099999
-4.349 -4.9489999 0.551
-4.349 -4.9489999 0.60100001
-4.349 -4.9489999 0.65100002
-4.349 -4.9489999 0.70099998
-4.349 -4.9489999 0.75099999
-4.349 -4.9489999 0.801
-4.349 -4.9489999 0.85100001
-4.349 -4.9489999 0.90100002
-4.349 -4.9489999 0.95099998
-4.349 -4.9489999 1.001
-4.349 -4.9489999 1.051
-4.349 -4.9489999 1.101
-4.349 -4.9489999 1.151
-4.349 -4.849 0.001
-4.349 -4.849 0.050999999
-4.349 -4.849 0.101
-4.349 -4.849 0.15099999
-4.349 -4.849 0.20100001
-4.349 -4.849 0.25099999
-4.349 -4.849 0.301
-4.349 -4.849 0.35100001
-4.349 -4.849 0.40099999
-4.349 -4.849 0.45100001
-4.349 -4.849 0.50099999
-4.349 -4.849 0.551
-4.349 -4.849 0.60100001
-4.349 -4.849 0.65100002
-4.349 -4.849 0.70099998
-4.349 -4.849 0.75099999
-4.349 -4.849 0.801
-4.349 -4.849 0.85100001
-4.349 -4.849 0.90100002
-4.349 -4.849 0.95099998
-4.349 -4.849 1.001
-4.349 -4.849 1.051
-4.349 -4.849 1.101
-4.349 -4.849 1.151
-4.349 -4.849 1.201
-4.349 -4.849 1.251
-4.349 -4.849 1.301
-4.349 -4.849 1.351
-4.349 -4.849 1.401
-4.349 -4.849 1.451
-4.349 -4.849 1.501
-4.349 -4.849 1.551
-4.349 -4.849 1.601
-4.349 -4.849 1.651
-4.349 -4.849 1.701
-4.349 -4.849 1.751
-4.349 -4.849 1.801
-4.349 -4.849 1.851
-4.349 -4.849 1.901
-4.349 -4.849 1.951
-4.349 -4.849 2.0009999
-4.349 -4.849 2.0510001
-4.349 -4.849 2.1010001
-4.349 -4.849 2.151
-4.349 -4.7490001 0.001
-4.349 -4.7490001 0.050999999
-4.349 -4.7490001 0.101
-4.349 -4.7490001 0.15099999
-4.349 -4.7490001 0.20100001
-4.349 -4.7490001 0.25099999
-4.349 -4.7490001 0.301
-4.349 -4.7490001 0.35100001
-4.349 -4.7490001 0.40099999
-4.349 -4.7490001 0.45100001
-4.349 -4.7490001 0.50099999
-4.349 -4.7490001 0.551
-4.349 -4.7490001 0.60100001
-4.349 -4.7490001 0.65100002
-4.349 -4.7490001 0.70099998
-4.349 -4.7490001 0.75099999
-4.349 -4.7490001 0.801
-4.349 -4.7490001 0.85100001
-4.349 -4.7490001 0.90100002
-4.349 -4.7490001 0.95099998
-4.349 -4.7490001 1.001
-4.349 -4.7490001 1.051
-2.9489999 -1.149 0.001
-2.9489999 -1.149 0.050999999
-2.9489999 -1.149 0.101
-2.9489999 -1.149 0.15099999
-2.9489999 -1.149 0.20100001
-2.9489999 -1.149 0.25099999
-2.9489999 -1.149 0.301
-2.9489999 -1.149 0.35100001
-2.9489999 -1.149 0.40099999
-2.9489999 -1.149 0.45100001
-2.9489999 -1.149 0.50099999
-2.9489999 -1.149 0.551
-2.9489999 -1.149 0.60100001
-2.9489999 -1.149 0.65100002
-2.9489999 -1.149 0.70099998
-2.9489999 -1.149 0.75099999
-2.9489999 -1.149 0.801
-2.9489999 -1.149 0.85100001
-2.9489999 -1.149 0.90100002
-2.9489999 -1.149 0.95099998
-2.9489999 -1.149 1.001
-2.9489999 -1.149 1.051
-2.9489999 -1.149 1.101
-2.9489999 -1.149 1.151
-2.9489999 -1.149 1.201
-2.9489999 -1.149 1.251
-2.9489999 -1.149 1.301
-2.9489999 -1.149 1.351
-2.9489999 -1.149 1.401
-2.9489999 -1.149 1.451
-2.9489999 -1.149 1.501
-2.9489999 -1.149 1.551
-2.9489999 -1.149 1.601
-2.9489999 -1.149 1.651
-2.9489999 -1.149 1.701
-2.9489999 -1.149 1.751
-2.9489999 -1.149 1.801
-2.9489999 -1.149 1.851
-2.9489999 -1.149 1.901
-2.9489999 -1.149 1.951
-2.9489999 -1.149 2.0009999
-2.9489999 -1.149 2.0510001
-2.9489999 -1.149 2.1010001
-2.9489999 -1.149 2.151
-2.9489999 -1.049 0.001
-2.9489999 -1.049 0.050999999
-2.9489999 -1.049 0.101
-2.9489999 -1.049 0.15099999
-2.9489999 -1.049 0.20100001
-2.9489999 -1.049 0.25099999
-2.9489999 -1.049 0.301
-2.9489999 -1.049 0.35100001
-2.9489999 -1.049 0.40099999
-2.9489999 -1.049 0.45100001
-2.9489999 -1.049 0.50099999
-2.9489999 -1.049 0.551
-2.9489999 -1.049 0.60100001
-2.9489999 -1.049 0.65100002
-2.9489999 -1.049 0.70099998
-2.9489999 -1.049 0.75099999
-2.9489999 -1.049 0.801
-2.9489999 -1.049 0.85100001
-2.9489999 -1.049 0.90100002
-2.9489999 -1.049 0.95099998
-2.9489999 -1.049 1.001
-2.9489999 -1.049 1.051
-2.9489999 -1.049 1.101
-2.9489999 -1.049 1.151
-2.9489999 -1.049 1.201
-2.9489999 -1.049 1.251
-2.9489999 -1.049 1.301
-2.9489999 -1.049 1.351
-2.9489999 -1.049 1.401
-2.9489999 -1.049 1.451
-2.9489999 -1.049 1.501
-2.9489999 -1.049 1.551
-2.9489999 -1.049 1.601
-2.9489999 -1.049 1.651
-2.9489999 -1.049 1.701
-2.9489999 -1.049 1.751
